ply
format ascii 1.0
comment PCL generated
element vertex 1592
property float x
property float y
property float z
element camera 0
property float view_px
property float view_py
property float view_pz
property float x_axisx
property float x_axisy
property float x_axisz
property float y_axisx
property float y_axisy
property float y_axisz
property float z_axisx
property float z_axisy
property float z_axisz
property float focal
property float scalex
property float scaley
property float centerx
property float centery
property int viewportx
property int viewporty
property float k1
property float k2
end_header
-10.89635 -47.38583 112.8008
-9.0202999 -47.100479 112.9676
-7.195096 -46.705219 113.1432
-5.5224781 -46.182159 113.3432
-22.62829 -18.993919 115.4365
-21.45857 -18.093981 115.8324
-19.86656 -17.13863 115.874
-18.05426 -16.456261 115.9695
-16.0996 -16.10177 116.083
-14.11825 -16.038509 116.167
-12.19204 -16.285891 116.1787
-10.40945 -16.639509 116.1198
-9.0956917 -16.99081 116.4465
-24.60593 -21.08773 115.1743
-23.58251 -19.956989 115.5293
-7.6527939 -17.400801 116.32
-6.117969 -17.843069 116.1829
-4.9570332 -18.33136 116.4235
-26.191851 -23.29817 114.9422
-25.28266 -21.986561 115.3011
-3.7135689 -18.984449 116.1962
-2.599041 -19.81748 116.3824
-27.38912 -25.71781 114.7579
-26.770411 -24.340811 115.0807
-15.8879 -25.677271 114.8952
-15.7777 -25.66556 114.8365
-15.79709 -25.64929 114.9192
-15.74829 -25.6973 114.9035
-1.495579 -20.73185 116.1256
-0.60291779 -21.66449 116.3365
-27.833229 -27.219271 114.4477
-16.06118 -26.015369 114.776
-15.98158 -25.79636 114.8237
-15.69262 -25.830999 114.8591
-15.76054 -26.116381 114.8918
-9.1332645 -26.184139 115.4412
-8.9716053 -26.09413 115.4429
-8.7620335 -26.1192 115.5502
0.5453797 -22.849131 116.1023
-28.24934 -29.974739 114.4094
-28.07564 -28.381781 114.6478
-15.96075 -26.202021 114.8363
-9.2760458 -26.408319 115.5354
-8.3625269 -26.29599 115.4056
-9.7225447 -26.81534 115.306
-7.5944862 -26.75964 115.5653
1.248744 -23.57262 115.8906
2.1989551 -24.708731 116.0293
-28.15093 -31.782249 114.2145
-16.7129 -29.6845 114.6853
-15.65466 -28.78698 114.8798
-14.0527 -28.10412 115.0481
-12.19166 -27.6423 115.2019
-10.64618 -27.22517 115.4189
-6.3636212 -27.61334 115.2998
-5.548192 -28.323311 115.4331
3.157346 -26.030979 115.868
3.7867379 -27.14913 115.9401
-27.9049 -33.686909 114.052
-17.693991 -32.095741 114.2722
-17.468769 -31.65539 114.7095
-4.608798 -29.51948 115.354
4.4780121 -28.659611 115.7868
-27.51903 -35.567188 113.8929
-17.84758 -33.863621 114.1457
-17.745939 -33.28997 114.4696
-4.038476 -31.708191 115.2396
4.9936862 -30.48171 115.603
-27.01722 -37.308521 113.7105
-17.787479 -34.926601 114.3982
-17.60672 -36.519581 114.3513
-3.915504 -33.67783 114.8472
-3.7882249 -34.17849 114.4227
5.3417482 -32.327 115.427
-26.367781 -38.828331 113.5069
-25.88389 -39.864059 113.7621
-17.103279 -37.747391 114.0756
-12.7297 -38.3993 113.9639
-13.20034 -38.505112 114.2191
-12.7521 -38.068279 114.3912
-12.01083 -38.29063 114.3223
-5.2087698 -36.439732 114.6701
-4.6539769 -35.323669 114.9457
5.5039792 -34.180691 115.2561
-25.10924 -41.258541 113.5521
-16.3277 -38.783199 113.8171
-15.35337 -39.467739 114.1545
-13.77676 -39.160858 114.0035
-10.93009 -38.8069 114.3869
-8.2833748 -38.633831 114.0984
-6.16541 -37.76115 114.344
5.4671531 -35.89389 114.9758
-24.177361 -42.61285 113.3583
-14.50345 -39.471851 114.0707
-9.4611301 -38.95755 114.2135
-7.958045 -38.667419 114.5443
-6.9387498 -38.278858 114.3843
4.6121268 -38.564861 114.7742
5.087769 -37.31488 115.1343
-23.37051 -43.606468 113.1803
-22.34973 -44.662849 113.4165
3.193223 -40.817928 114.4783
3.8405521 -39.855469 114.8325
-21.187679 -45.491489 113.1853
-19.909889 -46.172009 113.3717
1.19596 -42.924641 114.2146
2.1712389 -42.011372 114.5435
-18.657209 -46.61713 113.0873
-17.06855 -47.101151 113.228
-15.50329 -47.365971 113.3724
-14.3895 -47.511452 113.5097
-4.1457028 -45.765369 113.6949
-2.9625649 -45.312462 113.8874
-1.455321 -44.66621 114.1097
0.01062201 -43.79813 114.37
-12.71973 -47.58102 113.2267
-10.91521 -47.451389 113.3948
-9.0475883 -47.1549 113.5639
-7.2396188 -46.71563 113.7457
-5.5627542 -46.268398 113.9414
-22.61986 -19.05073 116.0324
-21.46398 -18.15316 116.4283
-19.8734 -17.203659 116.4688
-18.066351 -16.512939 116.5637
-16.119749 -16.151171 116.6757
-14.14805 -16.07654 116.7638
-12.22489 -16.322359 116.7828
-10.42598 -16.68515 116.7253
-9.1531115 -17.043079 117.0592
-24.5926 -21.144831 115.7722
-23.58432 -20.030581 116.1248
-7.7001238 -17.43355 116.9189
-6.143445 -17.896919 116.7666
-4.9991541 -18.38983 117.0146
-26.201691 -23.358101 115.5395
-25.290211 -22.064581 115.8969
-3.739192 -19.050131 116.788
-2.627672 -19.896339 116.9754
-27.40453 -25.77425 115.3552
-26.78587 -24.41235 115.6766
-15.77893 -25.68099 114.9692
-1.547269 -20.81608 116.7229
-0.68135917 -21.748711 116.9309
-27.86129 -27.27529 115.0444
-16.0063 -25.87044 114.8981
-15.94992 -25.792419 114.9305
-15.87224 -25.855471 114.9784
-8.9869699 -26.16308 115.6112
0.48358139 -22.927441 116.6965
-28.269091 -30.02706 115.0068
-28.10244 -28.42589 115.2456
-16.008949 -25.929199 114.9481
-8.6441269 -26.382339 115.8828
-9.7657032 -26.83762 115.8846
-7.7054458 -26.85191 116.1647
1.239038 -23.71958 116.4635
2.414439 -25.25412 116.5902
-28.190969 -31.83876 114.8108
-16.8857 -29.964621 115.2132
-15.67959 -28.73345 115.4569
-13.79482 -27.830811 115.7794
-11.99024 -27.555229 115.7487
-10.90563 -27.261259 115.9429
-6.297946 -27.79534 115.895
-5.3131399 -28.77586 115.8162
3.465003 -26.72179 116.3198
3.3397729 -26.5954 116.6262
-27.943871 -33.743149 114.6482
-17.887119 -32.878132 115.2717
-17.72267 -32.290531 114.9706
-17.58316 -31.263069 115.3677
-4.2356558 -30.3339 115.7006
-4.747798 -29.459419 116.0804
-4.197629 -30.201481 115.9946
3.6435649 -27.111629 116.5391
4.257319 -28.41814 116.4196
-27.54163 -35.618919 114.4902
-17.78734 -33.683769 114.8461
-17.852369 -34.39827 115.2264
-3.887099 -31.356871 115.6656
-3.876477 -30.94689 116.0144
4.8792272 -30.49486 116.2
-27.03124 -37.356079 114.3086
-17.64086 -35.894482 114.907
-4.1507859 -33.808941 115.4458
-3.7761469 -32.39151 115.8362
5.2564592 -32.375462 115.9951
-26.393259 -38.85194 114.1067
-25.900999 -39.914009 114.3599
-17.05249 -37.788971 114.6861
-13.09657 -38.130119 114.6882
-12.62574 -37.815632 114.8633
-12.14764 -38.004269 115.048
-5.1263061 -36.314602 115.3486
-4.5571508 -35.11533 115.5253
5.4376569 -33.982422 115.7812
-25.13224 -41.311489 114.1493
-16.338631 -38.82571 114.4836
-15.241 -39.480721 114.7754
-13.55014 -39.0425 114.684
-11.47578 -38.74094 114.9745
-6.1345792 -37.72205 114.9244
5.2776699 -35.967152 115.7133
-24.168501 -42.663639 113.9568
-14.52423 -39.557949 114.584
-10.02035 -39.08947 114.8767
-8.2354927 -38.921951 114.9208
-6.8614292 -38.31794 114.9932
4.5313911 -38.5495 115.362
4.978126 -37.320801 115.6536
-23.40344 -43.611801 113.7813
-22.36581 -44.71793 114.014
3.12429 -40.835892 115.0784
3.779871 -39.80698 115.4362
-21.207581 -45.53405 113.7851
-19.892969 -46.20863 113.9736
1.1614619 -42.963242 114.8137
2.120084 -42.033981 115.1449
-18.68475 -46.637421 113.6886
-17.09642 -47.113991 113.8289
-15.52922 -47.403419 113.9707
-14.39233 -47.557159 114.1075
-4.3766918 -45.845249 114.2881
-2.992552 -45.359089 114.4889
-1.477944 -44.688461 114.7081
-0.01522198 -43.839199 114.9661
-12.74757 -47.61219 113.824
-10.94478 -47.498421 113.9914
-9.0840473 -47.209942 114.162
-7.2833028 -46.783051 114.3451
-5.6229501 -46.260571 114.5491
-22.604309 -19.10961 116.6301
-21.4725 -18.22547 117.0239
-19.88349 -17.276011 117.0642
-18.076941 -16.57605 117.1598
-16.12664 -16.213579 117.2694
-14.18666 -16.13785 117.3476
-12.27958 -16.39068 117.3842
-10.45963 -16.76129 117.3428
-9.2099152 -17.12105 117.6616
-24.619551 -21.21125 116.3682
-23.58745 -20.108959 116.7206
-7.758194 -17.47633 117.519
-6.1837769 -17.9352 117.3622
-5.0242529 -18.44607 117.6114
-26.199659 -23.418619 116.1371
-25.302521 -22.111469 116.4953
-3.7631559 -19.127661 117.3813
-2.667592 -19.97633 117.5711
-27.44372 -25.8361 115.951
-26.79994 -24.487869 116.2722
-1.580197 -20.940269 117.3139
-0.75349981 -21.850109 117.5224
-27.88488 -27.330481 115.6414
-15.96622 -25.840019 114.97
0.42982751 -23.02058 117.2943
-28.30209 -30.080191 115.6033
-28.12719 -28.476601 115.8429
-15.0658 -27.979971 116.3786
-14.64587 -27.85021 116.2095
-14.48411 -27.72813 116.4363
-13.59396 -27.59544 116.4499
-10.76304 -27.08856 116.584
-10.42322 -27.01589 116.3002
-10.12517 -26.890631 116.5642
-9.2373075 -26.696449 116.5303
-7.871861 -26.89555 116.714
1.222581 -23.861719 117.0706
2.1886661 -25.138149 117.2945
-28.20892 -31.889851 115.408
-16.825939 -29.58716 115.8533
-15.63188 -28.450171 116.0708
-11.84919 -27.412861 116.3152
-6.4628549 -27.875401 116.5429
-5.7237048 -28.474291 116.2445
3.1584101 -26.455681 117.0872
-27.953991 -33.794041 115.2458
-17.833111 -31.955601 115.8115
-17.551809 -30.69367 115.9867
-5.1438088 -29.038441 116.5263
-4.2633972 -30.05604 116.2584
-4.349175 -29.952089 116.5941
3.667398 -27.305571 116.9194
4.3108258 -28.826281 117.068
-27.55904 -35.671001 115.0876
-17.825939 -33.556789 115.6968
-3.892046 -30.624821 116.4347
-3.6110439 -31.61647 116.3783
4.7962761 -30.56843 116.814
-27.070999 -37.410469 114.905
-17.57407 -35.588928 115.6902
-4.05127 -34.197979 116.0681
-3.612087 -32.933781 116.3767
5.1725392 -32.46912 116.5812
-26.41786 -38.901829 114.7042
-25.928471 -39.97049 114.9566
-16.950319 -37.5979 115.346
-13.09657 -38.009739 115.3417
-12.66999 -37.739941 115.5266
-12.18502 -38.279949 115.6413
-4.7567358 -35.75309 115.7948
-4.5992022 -35.47123 116.2398
5.3549142 -34.272881 116.3086
-25.158239 -41.370392 114.7459
-16.271669 -38.70607 115.1391
-15.05386 -39.332001 115.3939
-12.49164 -39.019341 115.1999
-12.52924 -38.516842 115.4265
-6.1017919 -37.785839 115.5498
-5.1214228 -36.520111 116.0097
4.8539062 -37.22316 116.3566
5.001123 -36.917011 116.1057
5.105854 -36.167061 116.4349
-24.231171 -42.73024 114.5511
-13.9186 -39.419998 115.2485
-12.35917 -39.368679 115.3811
-10.64687 -39.285191 115.5051
-8.5053015 -39.126701 115.5043
-6.938704 -38.489071 115.5742
4.4929051 -38.41769 115.9738
-23.41564 -43.72752 114.3731
-22.38554 -44.77737 114.6108
3.0491879 -40.85088 115.6793
3.702477 -39.796761 116.0363
-21.21987 -45.581039 114.3839
-19.866369 -46.247841 114.5748
1.085942 -43.000488 115.4113
2.058203 -42.041439 115.7473
-18.704679 -46.654591 114.2906
-17.11837 -47.148239 114.4287
-15.55335 -47.458092 114.5678
-14.44371 -47.615582 114.7026
-4.2116909 -45.853062 114.9089
-3.008096 -45.375031 115.0875
-1.502081 -44.699211 115.2953
-0.068646222 -43.846901 115.5636
-12.77414 -47.681641 114.4188
-10.97951 -47.548859 114.589
-9.1269093 -47.244961 114.7626
-7.3269982 -46.820259 114.9456
-5.729219 -46.394581 115.1877
-22.586281 -19.16868 117.2281
-21.48362 -18.29809 117.6197
-19.899309 -17.33148 117.6615
-18.093491 -16.62639 117.7582
-16.124901 -16.290751 117.8663
-14.13276 -16.21604 117.9396
-12.45053 -16.42568 117.9063
-10.47363 -16.912821 118.0225
-9.2927551 -17.22526 118.1759
-24.61561 -21.273609 116.9658
-23.59301 -20.1861 117.3162
-7.8731489 -17.52474 118.1116
-6.2444372 -17.99505 117.9597
-5.0880208 -18.502701 118.2096
-26.201559 -23.481211 116.7343
-25.31049 -22.185711 117.0912
-3.7981131 -19.200529 117.9771
-2.746264 -20.04495 118.1672
-27.45586 -25.896191 116.5478
-26.81172 -24.56971 116.8671
-1.619943 -21.07826 117.9122
-0.83132738 -21.954269 118.1101
-27.911449 -27.38854 116.2379
0.34973741 -23.114771 117.8884
-28.31221 -30.131929 116.2011
-28.149151 -28.5273 116.4402
-16.279181 -29.06192 116.8716
-15.99974 -28.685369 116.4982
-15.40026 -28.373409 116.9177
-14.37529 -27.76685 116.8209
-12.95092 -27.439751 116.977
-10.22657 -26.93804 116.7635
-9.6990671 -26.856609 117.1039
-8.6218109 -26.754919 117.1019
-7.4891782 -27.1628 117.2634
1.158697 -23.95554 117.688
2.145982 -25.17593 117.9167
-28.23279 -31.94228 116.0051
-17.604639 -31.074711 116.5009
-17.063259 -29.79809 116.4564
-16.943939 -29.77817 116.9969
-12.25947 -27.37718 116.7809
-11.00734 -27.15814 116.8885
-6.0289278 -28.22567 116.9023
-6.3340139 -27.8825 117.2889
-5.7556558 -28.348419 117.3259
3.0746541 -26.47085 117.6812
-27.978371 -33.847019 115.8428
-17.581129 -32.41185 116.1877
-17.546619 -31.74044 116.519
-17.44622 -32.22224 116.5649
-4.6606121 -29.478331 117.1012
3.632314 -27.414829 117.4735
4.2669239 -28.98381 117.6699
-27.589399 -35.725891 115.6841
-17.55126 -33.986099 115.9675
-17.391781 -33.293362 116.4536
-3.902004 -30.601709 116.9523
-3.4658959 -32.00243 116.8121
4.7547379 -30.70199 117.425
-27.09796 -37.46516 115.5018
-17.39946 -34.83675 116.2218
-17.337931 -36.194401 116.2164
-4.262599 -34.74218 116.4326
-4.212986 -34.696171 116.6542
-3.9232521 -33.983158 116.6298
-3.4972219 -32.882011 116.8743
5.0888929 -32.541698 117.1823
-26.44459 -38.969719 115.2998
-25.96759 -40.032181 115.5522
-16.95488 -37.299129 116.0453
-13.35612 -37.9035 115.9991
-12.80086 -37.876049 116.1603
-12.11701 -38.38298 116.3454
-4.4915128 -35.29269 116.6399
-4.8412571 -36.089039 116.522
5.2626829 -34.36441 116.9205
-25.19655 -41.435589 115.3413
-15.97463 -38.509899 115.8819
-14.89857 -38.92342 115.9145
-13.53975 -38.9202 115.7058
-12.35132 -39.07848 115.6306
-11.42153 -39.073681 116.0603
-6.1257029 -37.89875 116.1785
-5.211904 -36.720871 116.5875
4.8194399 -37.116039 116.8605
5.0472779 -36.05603 117.0881
-24.269751 -42.798801 115.1462
-14.37409 -39.18581 115.6987
-9.9369621 -39.42786 116.1542
-8.571744 -39.268318 116.1269
-7.0067301 -38.610031 116.1906
4.3203578 -38.550598 116.5515
-23.44051 -43.799259 114.9684
-22.40724 -44.843151 115.2067
2.9242451 -40.88176 116.2762
3.6069889 -39.774658 116.6327
-21.23521 -45.628792 114.9818
-19.876539 -46.300598 115.1728
1.020743 -43.026211 116.0106
1.988063 -42.049061 116.349
-18.71981 -46.70018 114.8895
-17.13714 -47.213039 115.0254
-15.57703 -47.523849 115.1637
-14.50217 -47.67675 115.297
-4.3766222 -45.896919 115.5546
-2.948894 -45.348061 115.6253
-1.63237 -44.721889 115.8851
-0.14074621 -43.86021 116.1644
-12.80632 -47.728729 115.0158
-11.01333 -47.593811 115.1872
-9.1530943 -47.280209 115.3628
-7.3261571 -46.823318 115.5431
-5.7665868 -46.370941 115.6776
-22.59786 -19.2309 117.8249
-21.497669 -18.35664 118.2173
-19.913589 -17.3885 118.2597
-18.10788 -16.688 118.3567
-16.141399 -16.339769 118.4684
-14.101 -16.29443 118.5485
-11.87548 -16.635321 118.5496
-10.21924 -17.069441 118.5435
-9.6889744 -17.189251 118.461
-24.607059 -21.333981 117.5636
-23.603189 -20.248159 117.913
-9.6654387 -17.22393 118.6465
-8.2938814 -17.49913 118.7411
-6.357163 -18.029039 118.5665
-5.1155448 -18.56535 118.8078
-26.20899 -23.543989 117.3313
-25.31897 -22.26524 117.6867
-3.8465991 -19.270269 118.5638
-2.882061 -20.059219 118.7097
-27.46616 -25.95734 117.1446
-26.826389 -24.632999 117.4637
-1.6936001 -21.180519 118.5569
-0.85800838 -22.07044 118.6274
-27.922119 -27.447599 116.8349
0.26718709 -23.181601 118.4752
-28.3459 -30.19162 116.7977
-28.16482 -28.60054 117.0362
-15.49418 -28.58102 117.0705
-14.46028 -28.020729 117.2424
-13.68879 -27.697769 117.6316
-12.53933 -27.21027 117.5904
-11.6489 -27.19845 117.2331
-10.44683 -26.971991 117.3107
-10.87054 -26.973 117.6162
-9.1404495 -26.759529 117.789
-7.8185668 -27.08153 117.9811
1.106627 -24.044649 118.2884
2.0774441 -25.276079 118.5124
-28.257 -31.997761 116.6026
-17.50124 -30.975389 117.2175
-17.04809 -29.855221 117.3503
-16.25948 -29.28422 117.4236
-15.60063 -28.860399 117.2275
-14.5898 -28.25127 117.4756
-15.10073 -28.57963 117.5521
-6.433888 -27.807211 117.7098
-5.141252 -28.895029 117.8245
3.0137031 -26.56609 118.2781
-28.000851 -33.9016 116.4405
-17.517651 -31.61581 116.8146
-17.42378 -32.396511 116.8246
-15.61712 -28.944559 117.4617
-4.0904169 -30.140659 117.4938
-4.183342 -29.85865 117.8712
-3.7787361 -30.527969 117.7106
3.61075 -27.5781 118.0609
4.2318912 -29.10058 118.2623
-27.60796 -35.780659 116.2817
-17.434019 -34.01606 116.9163
-17.345249 -34.12849 116.6125
-17.4135 -33.18082 116.8885
-3.5314109 -31.822729 117.5062
4.7159281 -30.79534 118.0216
-27.134239 -37.523609 116.0981
-17.31069 -35.306221 116.6813
-4.1620831 -34.697208 116.9253
-3.678335 -33.598099 117.1064
-3.6006429 -33.373409 117.4326
5.0343442 -32.60004 117.7789
-26.47434 -39.030788 115.8959
-26.00083 -40.094799 116.1483
-16.99999 -36.88855 116.5874
-14.57011 -38.366199 116.1619
-15.07943 -38.28344 116.4196
-13.83811 -38.07711 116.5183
-12.89888 -38.187778 116.6144
-12.44439 -38.63327 116.7692
-3.994276 -34.507111 117.3916
-4.757957 -35.934231 117.047
5.1591911 -34.39209 117.5228
-25.25514 -41.505119 115.9354
-16.11624 -38.097351 116.5747
-14.15294 -38.695721 115.9859
-11.46166 -39.076889 116.6802
-6.0441408 -37.853279 116.8862
-5.1952591 -36.684769 117.0072
4.7622342 -37.101219 117.4433
4.9871612 -36.03223 117.6889
-24.334351 -42.873112 115.7398
-10.14903 -39.404381 116.6786
-8.5168819 -39.325569 116.7187
-7.1934028 -38.813221 116.7823
4.190125 -38.581348 117.1217
-23.46781 -43.902821 115.5607
-22.448339 -44.913052 115.8015
2.8066511 -40.919079 116.8719
3.5327821 -39.774429 117.2281
-21.25453 -45.703831 115.5773
-19.912239 -46.361172 115.769
0.92515278 -43.050091 116.6094
1.91468 -42.051559 116.9509
-18.73851 -46.75864 115.4867
-17.15979 -47.272259 115.6221
-15.60236 -47.572651 115.7608
-14.50028 -47.726219 115.8941
-5.673306 -46.31385 116.2924
-5.282835 -46.178322 116.0725
-5.0886569 -46.111099 116.3266
-3.5492849 -45.610279 116.2136
-1.746707 -44.730499 116.4988
-0.194985 -43.848629 116.7685
-12.83317 -47.783291 115.6119
-11.03565 -47.62991 115.7869
-9.1328278 -47.30191 115.9705
-7.043035 -46.78767 116.1785
-22.60862 -19.290951 118.4219
-21.512341 -18.41835 118.8154
-19.924641 -17.46534 118.8576
-18.119579 -16.75527 118.9558
-16.165331 -16.385019 119.0701
-14.17231 -16.324909 119.155
-12.21836 -16.614 119.1719
-10.55909 -16.958549 119.172
-9.9762402 -17.142651 118.8015
-9.2559462 -17.29397 119.3773
-24.60169 -21.392599 118.1613
-23.615761 -20.30492 118.5101
-7.719327 -17.69154 119.3721
-6.3508611 -18.095949 119.1763
-5.131629 -18.63751 119.4014
-26.223551 -23.60511 117.9281
-25.329321 -22.34585 118.2817
-3.842433 -19.393789 119.1413
-2.5549779 -20.5338 119.2601
-27.47603 -26.01729 117.7417
-26.843161 -24.690479 118.0606
-1.3369009 -21.76375 119.0332
-1.571872 -21.588181 119.209
-27.93059 -27.50816 117.4321
-16.965719 -26.76424 118.4648
-16.91531 -26.74239 118.4207
-16.908831 -26.621929 118.5365
-16.732491 -26.706181 118.4598
-15.2362 -27.35062 118.1846
-14.69324 -27.187071 118.1164
-14.87111 -26.98785 118.2381
-14.28496 -26.95789 118.3392
-1.205521 -21.97291 119.2429
-0.01464478 -23.074591 119.1059
-28.358629 -30.25001 117.3959
-28.178261 -28.68017 117.6321
-16.807449 -27.001789 118.4689
-14.48271 -27.79035 117.8999
-15.35708 -28.087891 118.0702
-12.95439 -27.145399 118.1963
-10.82543 -26.981991 118.1105
-11.81149 -27.120449 118.2161
-10.07878 -26.619671 118.7869
-8.8022766 -26.682949 118.5438
-7.8828301 -27.04689 118.6042
1.032113 -24.130739 118.8839
2.0329299 -25.3855 119.0986
-28.27553 -32.054081 117.2012
-17.180161 -30.17107 117.6351
-17.06374 -30.12335 117.8715
-16.353621 -29.029209 117.9642
-15.50084 -28.66721 117.7373
-11.18181 -27.0243 118.6721
-6.5470638 -27.954269 118.292
-5.809114 -28.546789 118.4407
2.9665639 -26.69421 118.8656
-28.012859 -33.9562 117.0398
-17.396761 -31.15048 117.7998
-17.5497 -32.614441 117.3998
-17.509859 -32.069969 117.0797
-4.4265938 -29.800051 118.2883
-3.825788 -30.517481 117.9388
3.5899551 -27.76156 118.646
4.1518641 -29.23271 118.8445
-27.64286 -35.840881 116.8797
-17.252041 -34.485062 117.2179
-17.38979 -33.579639 117.5338
-17.14443 -34.533611 117.5044
-3.840816 -30.84067 118.2319
-3.5463319 -32.512852 118.174
4.6475692 -30.88559 118.6083
-27.155649 -37.583321 116.6961
-16.92823 -36.238232 117.0368
-16.74744 -36.03619 117.3667
-3.6507931 -33.499352 117.744
4.974021 -32.65176 118.3689
-26.501419 -39.097401 116.4923
-26.033951 -40.15778 116.7447
-16.68399 -37.366821 116.8556
-16.328541 -37.55949 117.1215
-14.70663 -38.351822 116.7767
-13.52717 -38.580551 116.9202
-5.1374011 -36.528671 117.2789
-5.4171581 -36.821239 117.6719
-4.7134638 -35.631512 117.7321
-4.0007062 -34.488152 117.7612
5.0865068 -34.419861 118.1143
-25.29705 -41.57122 116.5309
-14.83787 -38.64138 117.1046
-13.63857 -39.183708 117.1172
-12.42723 -39.18771 116.9822
-6.3841119 -38.20253 117.3874
4.6996341 -37.12207 118.0345
4.9211001 -36.012211 118.2849
-24.36952 -42.940929 116.3348
-12.67487 -39.525249 117.271
-10.75601 -39.522419 117.3158
-8.6663055 -39.327412 117.301
-7.127883 -38.769402 117.3748
4.1474328 -38.607948 117.7118
-23.502279 -43.974751 116.1554
-22.478121 -44.977451 116.3968
2.7482541 -40.952579 117.4711
3.476763 -39.81089 117.826
-21.280319 -45.769371 116.1732
-19.943529 -46.41885 116.3655
0.78832328 -43.082378 117.2048
1.845184 -42.050789 117.5529
-18.761141 -46.8186 116.0835
-17.18409 -47.320122 116.2197
-15.62412 -47.622841 116.3572
-14.5154 -47.775829 116.4899
-5.7315021 -46.352291 116.7029
-4.7544322 -46.004059 116.6666
-3.4194901 -45.551701 116.8941
-1.721336 -44.678391 117.1053
-0.2391084 -43.853611 117.3654
-12.85279 -47.844749 116.2074
-11.05811 -47.67823 116.3879
-9.1855612 -47.355808 116.5861
-7.4683218 -46.920898 116.837
-22.62862 -19.351471 119.019
-21.528761 -18.479111 119.4136
-19.942619 -17.523199 119.4573
-18.137251 -16.807899 119.5558
-16.18993 -16.43716 119.6676
-14.22176 -16.35103 119.7556
-12.30056 -16.631001 119.7716
-10.53013 -17.0009 119.7124
-9.2961302 -17.33489 120.0343
-24.61517 -21.45248 118.7581
-23.627661 -20.36577 119.107
-7.8280778 -17.70422 119.91
-6.2912869 -18.185789 119.7664
-5.1969562 -18.708099 119.9895
-26.249531 -23.664829 118.5245
-25.34598 -22.395161 118.8795
-3.8829989 -19.49087 119.7283
-2.9903491 -20.27368 119.8826
-27.497761 -26.07641 118.3384
-26.86227 -24.740471 118.6582
-1.867007 -21.40284 119.792
-1.575974 -21.630251 119.4384
-1.0656739 -22.198071 119.6903
-27.936331 -27.567129 118.0297
-16.99955 -26.775499 118.588
-17.062229 -27.16633 118.7243
-16.718451 -26.56465 118.8619
-16.17734 -27.05862 118.4445
-15.35349 -26.786329 118.5095
-14.59777 -26.828381 118.6946
-10.51833 -26.31365 119.2487
-10.25033 -26.344629 119.1124
-10.34433 -26.245449 119.3056
-9.7376804 -26.33132 119.1504
0.2098912 -23.457649 119.6841
-28.374399 -30.30636 117.9943
-28.19161 -28.760389 118.2279
-16.42436 -27.52216 118.7281
-15.83296 -27.882481 118.6238
-13.45683 -27.015949 118.8504
-12.15659 -27.11204 118.5698
-10.59517 -26.522791 119.1454
-10.78553 -26.831881 119.0247
-8.6587934 -26.711121 119.1205
-7.9796209 -27.04034 119.0156
1.002465 -24.29847 119.4703
1.904739 -25.495411 119.6709
-28.300631 -32.107491 117.7998
-16.998329 -30.13813 118.2994
-16.34757 -28.804501 118.6786
-12.00589 -27.065149 118.9178
-11.39895 -27.00536 119.0703
-6.8506699 -27.83127 118.972
-5.480495 -28.887091 118.998
2.889286 -26.81575 119.4472
-28.04801 -34.008919 117.6386
-17.622419 -32.938549 117.9809
-17.51293 -31.35248 118.4046
-4.1768451 -30.19434 118.731
-4.3949218 -29.87723 119.0023
-4.0393829 -30.438869 119.0504
3.5409679 -27.922371 119.2346
4.0947132 -29.359819 119.4253
-27.662239 -35.896469 117.4799
-17.254749 -34.162708 117.7534
-17.408951 -34.147221 118.1297
-3.670177 -31.47962 118.6786
4.5829682 -30.95657 119.1951
-27.183861 -37.647861 117.2952
-17.16844 -34.649818 118.0051
-16.846701 -35.438549 117.8686
-3.9324419 -34.144741 118.1213
-4.6115408 -35.215199 118.4132
-3.7548139 -33.3162 118.6973
4.8826032 -32.691559 118.9627
-26.52915 -39.150391 117.0908
-26.06358 -40.212219 117.34
-15.9309 -37.890129 117.741
-4.9924798 -36.130692 118.0525
-5.0116258 -36.152599 118.277
4.9887099 -34.444561 118.7077
-25.34042 -41.630489 117.1279
-14.6444 -38.9935 117.369
-14.81309 -39.039959 117.5407
-12.61505 -39.604092 117.5708
-13.81253 -39.528091 117.7209
-13.16539 -39.549561 117.8978
-11.65883 -39.590141 117.9268
-6.2091708 -37.95322 118.0436
-5.3344188 -36.746471 118.1109
4.6169019 -37.146259 118.6291
4.8339248 -35.922291 118.8926
-24.406219 -43.0061 116.9304
-13.85593 -39.459148 117.4351
-10.03654 -39.552689 117.9567
-8.6654263 -39.31419 117.888
-7.2011738 -38.819759 117.9245
4.1242771 -38.63829 118.31
-23.53129 -44.05254 116.7495
-22.508381 -45.038898 116.9921
2.6672771 -40.99754 118.0702
3.4275839 -39.822811 118.4292
-21.30687 -45.82246 116.7698
-19.96262 -46.470612 116.963
0.68591619 -43.119011 117.7994
1.7947969 -42.091419 118.1522
-18.785721 -46.867279 116.6813
-17.206181 -47.376221 116.8165
-15.64823 -47.659569 116.9546
-14.50071 -47.819469 117.0872
-4.989717 -46.10944 116.9564
-4.448256 -45.973351 117.4064
-3.1231179 -45.45105 117.4389
-1.782264 -44.72123 117.6884
-0.29621601 -43.852692 117.96
-12.87641 -47.88765 116.8042
-11.10258 -47.726582 116.9877
-9.3123741 -47.437191 117.1839
-7.7203989 -47.062462 117.3794
-5.931643 -46.49052 117.3234
-22.61413 -19.407169 119.6178
-21.54455 -18.550529 120.0102
-19.968719 -17.56266 120.0572
-18.16263 -16.858709 120.1541
-16.21736 -16.50028 120.2587
-14.29217 -16.39908 120.3345
-12.38857 -16.66502 120.373
-10.57097 -17.048309 120.3298
-9.3385382 -17.3978 120.6412
-24.622841 -21.51125 119.3553
-23.63442 -20.453079 119.7018
-7.8895988 -17.76322 120.4975
-6.337966 -18.26906 120.3436
-5.2872539 -18.785351 120.5777
-26.24596 -23.718269 119.1226
-25.36096 -22.453991 119.4765
-3.943656 -19.567869 120.3223
-2.751328 -20.653311 120.455
-27.508949 -26.13192 118.9361
-26.8776 -24.813089 119.2541
-1.450335 -21.902849 120.107
-1.605661 -21.82897 120.4858
-27.968019 -27.6278 118.6261
-17.52603 -27.37464 119.3314
-17.32419 -27.097151 119.0496
-17.360229 -26.79483 119.3691
-16.67701 -27.047779 119.08
-17.13061 -26.743219 119.3437
-15.45531 -26.94014 118.9726
-10.83672 -26.40885 119.4646
-10.31573 -26.2437 119.5916
-9.6010294 -26.40136 119.686
-1.209348 -22.211691 120.3968
-0.14827579 -23.220579 120.2712
-28.380421 -30.35705 118.5925
-28.21328 -28.79229 118.8273
-17.227209 -27.57107 119.1306
-15.71596 -28.02161 119.2261
-14.67851 -27.09403 119.2559
-13.5646 -27.023939 119.4467
-11.80035 -26.707689 119.7245
-11.191 -26.783689 119.3109
-8.5774069 -27.021111 119.6505
-8.166832 -27.10074 119.3168
0.94988531 -24.39003 120.0575
1.870685 -25.65394 120.257
-28.327299 -32.155399 118.3969
-17.12237 -30.13361 118.903
-16.43906 -28.804899 119.2082
-12.25737 -26.984619 119.3237
-7.8713598 -27.411791 119.5328
-6.5947628 -28.26469 119.5404
-5.7610569 -28.872169 119.6381
2.765573 -26.839001 119.9838
-28.07733 -34.048458 118.2346
-17.878401 -32.576382 118.5984
-17.71096 -31.357071 118.991
-4.6570539 -29.63032 119.3768
-3.987215 -30.584141 119.6331
3.502224 -28.38076 119.8498
3.9228089 -29.53059 119.9416
-27.69445 -35.934139 118.0771
-17.696091 -34.256111 118.5963
-3.6695311 -31.75239 119.2374
4.4366889 -30.95438 119.7781
-27.214029 -37.7113 117.8953
-17.17758 -35.03516 118.3363
-16.857599 -36.266209 118.3792
-4.146975 -34.47377 119.0657
-3.7033789 -33.256721 119.3769
4.7281818 -32.669151 119.5736
-26.55327 -39.228661 117.6871
-26.11809 -40.240318 117.9167
-17.061541 -37.691528 118.7051
-16.12254 -38.218418 118.2719
-16.83433 -37.132019 118.4912
-5.2224698 -36.492111 118.4578
-5.561358 -36.9006 118.9181
-4.9052691 -35.836521 118.8482
4.8506408 -34.44569 119.3262
-25.413191 -41.655842 117.7305
-15.76958 -38.69257 118.5278
-14.67583 -39.155819 118.1157
-14.65493 -39.18816 117.7064
-12.87212 -39.50959 118.3739
-11.56241 -39.612679 118.4516
-6.5547438 -38.33046 118.4284
4.548173 -37.156528 119.2255
4.7313509 -35.832371 119.5069
-24.442989 -43.06245 117.5289
-10.21411 -39.56876 118.4547
-8.4707937 -39.284081 118.5
-7.479094 -38.953121 118.3255
4.0533161 -38.672569 118.9077
-23.55872 -44.110531 117.3456
-22.516911 -45.09827 117.5883
2.617228 -41.043701 118.6703
3.3943541 -39.854031 119.0301
-21.33182 -45.866589 117.367
-19.997601 -46.522991 117.5595
0.65512979 -43.151871 118.3979
1.762794 -42.11084 118.7547
-18.809059 -46.927391 117.278
-17.235279 -47.41193 117.4146
-15.673 -47.72084 117.5495
-14.56289 -47.87188 117.6818
-5.6177449 -46.427559 118.0733
-5.3486362 -46.302952 117.8322
-5.0500202 -46.212662 118.0183
-3.691797 -45.69672 118.0257
-1.83197 -44.764629 118.2753
-0.33639541 -43.90237 118.5533
-12.90078 -47.932789 117.4006
-11.1302 -47.777168 117.5826
-9.2866049 -47.470909 117.766
-7.1859379 -46.978249 117.9415
-22.629539 -19.469009 120.2147
-21.561701 -18.61631 120.6061
-19.99271 -17.63163 120.6527
-18.19458 -16.90464 120.751
-16.24358 -16.55035 120.85
-14.32074 -16.44384 120.9044
-12.64826 -16.66828 120.8735
-10.6433 -17.13866 121.0303
-9.2949686 -17.50242 121.1567
-24.623619 -21.569559 119.9529
-23.64683 -20.506399 120.2996
-7.9543338 -17.82317 121.0709
-6.3982248 -18.360371 120.9241
-5.3953028 -18.870331 121.1689
-26.26947 -23.776649 119.7194
-25.37298 -22.52684 120.0724
-3.9792609 -19.68487 120.9304
-3.0279 -20.54804 121.1545
-27.51918 -26.187149 119.5337
-26.89514 -24.864771 119.8517
-1.82897 -21.70908 120.9484
-27.97757 -27.683531 119.2239
-17.5292 -27.251659 119.7675
-17.162251 -26.707701 119.8955
-16.88661 -27.16432 119.5366
-16.64467 -26.756281 119.7321
-16.14653 -27.009821 119.69
-11.04795 -26.444981 119.9859
-10.22854 -26.295019 119.9235
-9.847353 -26.433479 120.0442
-1.150377 -22.354321 120.7799
-0.020534011 -23.485331 120.9272
-28.414129 -30.410549 119.1879
-28.23024 -28.857599 119.4231
-17.411909 -27.66494 119.494
-16.302259 -28.05933 119.5543
-17.017481 -28.26932 119.7792
-14.77836 -27.103001 119.8762
-12.9621 -26.955721 119.7451
-12.7474 -26.847521 120.1798
-9.247941 -26.987631 120.2399
0.88341618 -24.44692 120.6696
1.835676 -25.758739 120.8804
-28.351789 -32.201859 118.9922
-17.258289 -29.714861 119.6368
-7.774127 -27.740179 120.1075
-6.3802829 -28.556379 120.0016
-5.7128768 -29.05789 120.1067
2.9308491 -27.47208 120.5699
-28.109011 -34.09428 118.8263
-18.3423 -33.214199 119.1552
-17.95409 -31.3598 119.536
-5.171185 -29.94463 120.4816
-5.6495991 -29.61684 120.5662
-5.2281871 -29.77232 120.4261
-4.6927881 -29.72893 119.9299
-4.751153 -30.12682 120.5148
-4.062304 -30.48996 120.0602
3.695997 -29.11812 120.2462
3.579814 -29.02668 120.6372
-27.73073 -35.948059 118.6605
-18.509701 -35.643959 118.9583
-18.036091 -35.549568 118.8747
-18.40176 -34.73737 118.8926
-4.963326 -30.10677 120.5966
-3.720103 -31.50968 120.0135
3.806864 -29.585381 120.5578
4.2174468 -30.73674 120.4161
-27.252291 -37.714859 118.4894
-18.15481 -36.485291 118.9261
-18.62583 -36.305031 119.2472
-17.476959 -35.705219 118.7738
-17.529619 -36.52351 118.8354
-17.15452 -36.41399 118.739
-4.728735 -35.501209 119.2164
-4.976521 -35.93924 119.6266
-4.1276059 -34.449581 119.649
-3.6518109 -33.2164 119.9387
4.5839419 -32.403111 120.1487
-26.54948 -39.40197 118.2915
-26.18906 -40.231602 118.3232
-17.96295 -37.195469 119.0623
-17.26737 -37.962261 119.2218
-17.24398 -36.609348 118.7918
-5.574255 -36.87936 119.4738
4.672205 -34.389149 120.0585
-25.57634 -41.52095 118.3789
-16.0182 -38.678551 118.9665
-14.60121 -39.199558 118.7391
-13.01164 -39.594181 119.022
-12.13452 -39.654701 118.7681
-6.9057541 -38.50626 118.8162
-7.5156088 -38.792702 119.1068
-6.5757952 -38.073509 119.3658
4.4800258 -37.147968 119.8084
4.6331158 -35.827419 120.0299
-24.479561 -43.0951 118.137
-11.86929 -39.701431 119.1146
-10.53662 -39.65517 118.9933
-8.8075066 -39.34053 119.0446
3.9916191 -38.696209 119.5024
-23.58736 -44.161491 117.9439
-22.54966 -45.165192 118.1827
2.5797861 -41.088131 119.2682
3.3689561 -39.870232 119.6274
-21.353001 -45.934368 117.9618
-20.024599 -46.573021 118.1562
0.57895482 -43.187511 119.0027
1.756627 -42.108269 119.3582
-18.84005 -46.970268 117.8757
-17.270849 -47.439381 118.0128
-15.69844 -47.760021 118.147
-14.57319 -47.906681 118.2838
-5.087687 -46.242191 118.1995
-4.6303239 -46.105221 118.5882
-3.2362499 -45.550159 118.6074
-1.859645 -44.81987 118.8691
-0.37672031 -43.89785 119.1537
-12.91056 -47.984241 117.9999
-11.11256 -47.843571 118.179
-9.2487249 -47.52565 118.3564
-7.6312032 -47.152359 118.55
-5.9032712 -46.56971 118.5323
-22.62879 -19.52869 120.8121
-21.57855 -18.690439 121.2002
-20.01755 -17.69422 121.2472
-18.22587 -16.960661 121.3462
-16.26819 -16.609209 121.4448
-14.30334 -16.50976 121.4927
-12.42302 -16.781601 121.428
-10.51654 -17.30937 121.7636
-9.7064648 -17.48245 121.5328
-24.625549 -21.62771 120.5505
-23.660049 -20.567829 120.8963
-9.4184961 -17.6199 121.8349
-8.1469402 -17.875521 121.6463
-6.4820299 -18.406969 121.5105
-5.3958921 -18.94607 121.767
-26.292339 -23.836531 120.3161
-25.385571 -22.5931 120.6688
-4.057478 -19.742809 121.5477
-3.1300859 -20.584841 121.7731
-27.53709 -26.24444 120.131
-26.91102 -24.917419 120.4494
-1.936697 -21.71339 121.5437
-27.982389 -27.738119 119.8218
-17.35548 -27.18187 120.2611
-16.988831 -26.98308 120.4545
-16.212721 -26.75242 120.0011
-16.493561 -26.850651 120.4039
-10.29876 -26.49563 120.205
-1.174282 -22.429079 121.3376
-0.066190697 -23.586321 121.5368
-28.418341 -30.460609 119.7838
-28.24333 -28.95295 120.016
-17.34763 -27.8291 120.2377
-17.293739 -28.901739 120.3399
-15.79516 -26.9659 120.3504
-14.84055 -27.416439 120.587
-13.21659 -27.276751 120.8108
-11.1201 -26.87262 120.6534
-9.3843946 -27.28211 120.9271
0.86898082 -24.56521 121.2916
1.764563 -25.765699 121.5051
-28.37001 -32.249241 119.5871
-18.147249 -30.74719 120.0741
-17.991579 -30.67676 119.9326
-17.807341 -29.99287 120.0459
-8.2981739 -27.627501 120.69
-6.0925722 -28.943331 120.2989
-6.7310801 -28.652559 120.7272
2.6968501 -27.26882 121.257
-28.13364 -34.151939 119.4203
-18.454639 -32.142971 120.0278
-5.977149 -29.4175 120.9157
-4.5083022 -30.13735 120.4092
3.392164 -28.812889 121.0785
-27.74416 -36.05888 119.2419
-18.763849 -35.012829 119.2199
-18.835541 -34.314079 119.6958
-5.0850048 -30.10848 120.8975
-4.2287502 -30.59898 120.6419
-3.645602 -32.151428 120.5291
3.7893939 -29.796881 120.9244
4.103076 -30.93799 120.9807
-27.314011 -37.603191 119.0216
-18.991131 -35.637329 119.7256
-18.76576 -36.569901 119.6711
-17.37125 -36.31089 118.8619
-4.340023 -34.967999 120.0416
-3.7144439 -33.863091 120.3447
-4.091969 -34.759602 120.4076
4.398397 -32.587379 120.8032
-26.656771 -39.319149 118.9223
-26.261749 -40.122608 118.541
-18.19985 -37.240429 119.4752
-17.406191 -37.94276 119.7599
-5.6963949 -36.997219 119.88
-4.9005098 -35.956509 120.1903
4.487298 -35.537338 120.7494
4.5846462 -35.350971 120.4491
4.5243292 -34.503391 120.7394
-26.095461 -40.59494 118.9728
-25.41107 -41.9231 118.9659
-16.30625 -38.61145 119.5163
-14.71013 -39.232891 119.3342
-13.21723 -39.614361 119.6611
-7.8170562 -38.802219 119.6141
-6.7102518 -38.028919 119.9911
4.4103951 -36.96545 120.4076
-24.524281 -43.182991 118.7403
-12.04087 -39.730808 119.6083
-10.5113 -39.63348 119.6131
-8.9851608 -39.306339 119.6216
3.91835 -38.695099 120.0939
-23.6063 -44.26664 118.5386
-22.58102 -45.229321 118.777
2.649291 -41.11372 119.8598
3.3457689 -39.979382 120.213
-21.380039 -45.978981 118.558
-20.02183 -46.614449 118.7542
0.55253172 -43.201809 119.6588
1.8139139 -42.11058 119.9097
-18.876829 -46.997002 118.4741
-17.29685 -47.472809 118.611
-15.70023 -47.767349 118.7484
-14.50002 -47.916321 118.8928
-5.8598189 -46.60038 119.2496
-5.4270458 -46.41901 118.9845
-5.2811999 -46.3843 119.3145
-3.7190659 -45.79203 119.2162
-1.873962 -44.81044 119.4841
-0.43848959 -43.927029 119.6849
-12.90167 -47.999489 118.6187
-11.06199 -47.87524 118.7853
-9.2159843 -47.529739 118.9498
-7.1924291 -47.06485 119.131
-22.64942 -19.58942 121.4078
-21.60055 -18.74695 121.7951
-20.039511 -17.772381 121.8395
-18.254511 -17.024361 121.941
-16.290291 -16.665449 122.0452
-14.30201 -16.59465 122.0966
-12.39493 -16.86858 122.0479
-10.70328 -17.35465 122.3906
-24.6374 -21.68469 121.1476
-23.67734 -20.62516 121.4925
-9.6395502 -17.63446 122.3059
-8.1169024 -17.993931 122.2519
-6.5414152 -18.496849 122.1183
-5.4229522 -19.04874 122.3631
-26.29882 -23.894899 120.9134
-25.398661 -22.65476 121.2653
-4.0958819 -19.850519 122.1426
-3.1892991 -20.668289 122.3678
-27.537951 -26.29966 120.729
-26.92185 -24.991989 121.0452
-1.994488 -21.7812 122.1455
-28.005409 -27.79496 120.4187
-16.96006 -27.386089 120.6425
-16.594049 -27.4482 120.8436
-16.496639 -27.20447 120.7458
-15.94157 -27.124081 120.6518
-15.9974 -27.394621 120.8276
-1.209746 -22.507351 121.9352
-0.12568539 -23.662371 122.136
-28.472031 -30.51972 120.3768
-28.26926 -28.97776 120.6149
-16.41856 -28.644039 120.8678
-16.385441 -27.801661 120.8124
-15.0292 -28.031811 120.933
-13.53087 -27.765619 121.2412
-12.21288 -27.258301 121.1606
-10.9636 -27.22241 121.4041
-9.4752607 -27.41473 121.6298
0.83400428 -24.6502 121.8971
1.704276 -25.8155 122.1017
-28.395029 -32.30088 120.1813
-17.93125 -30.543039 120.2964
-17.363371 -30.413811 120.8002
-16.167021 -28.937851 121.1131
-14.79015 -28.40028 121.3752
-8.2210913 -27.82061 121.2516
-6.6516809 -28.810129 121.3742
2.6051331 -27.359659 121.8477
-28.171949 -34.203468 120.0189
-18.049709 -31.527081 120.5569
-18.445299 -32.75032 120.4949
-5.766561 -29.580179 121.1643
-6.0175862 -29.277069 121.3879
-5.0253549 -30.08527 121.3273
3.248553 -28.709961 121.5907
-27.77187 -36.161049 119.8507
-18.79026 -34.625301 120.3683
-4.1570258 -31.016569 121.1672
-3.5355141 -32.96954 120.9782
3.7234199 -30.020929 121.4531
4.0656958 -31.269911 121.3605
-27.165449 -38.24353 119.608
-18.95517 -36.314899 119.9625
-19.04685 -35.7659 120.0894
-3.7218981 -34.26376 120.7674
-3.4781129 -33.852871 121.0393
4.2400341 -33.017689 121.5151
4.3277888 -33.288441 121.2448
4.190855 -32.35228 121.4223
-26.418871 -39.94101 119.4145
-26.53343 -39.7682 119.6755
-26.307409 -40.247219 119.6146
-18.429359 -37.08432 120.0461
-17.454281 -38.00209 120.3642
-5.7424889 -36.89344 120.4411
-4.52917 -35.488789 120.8905
-3.6868701 -34.451511 121.0935
4.3712358 -34.840099 121.3505
-25.709339 -41.498581 119.5576
-16.370171 -38.694729 120.1066
-14.78823 -39.295319 119.9415
-13.33537 -39.692871 120.2737
-7.9300628 -38.830231 120.2016
-6.7856131 -38.00124 120.5996
4.2738848 -36.984211 121.0183
-24.574129 -43.214691 119.3373
-12.09308 -39.793522 120.2046
-10.54111 -39.671452 120.2055
-9.0412989 -39.34214 120.2216
3.865648 -38.701679 120.6902
-23.63077 -44.332371 119.135
-22.59882 -45.2775 119.3727
2.544543 -41.21418 120.4355
3.2903359 -40.021999 120.8084
-21.40416 -46.031509 119.1529
-20.10218 -46.662281 119.3483
-0.34884411 -43.842121 120.2942
-0.0065552178 -43.605042 120.0736
0.1300295 -43.498211 120.3985
1.379396 -42.44865 120.4442
-18.894911 -47.070148 119.0691
-17.285721 -47.49115 119.2123
-15.61755 -47.792622 119.3448
-14.54798 -47.932079 119.4156
-6.0138311 -46.674622 119.6351
-5.0629702 -46.315269 119.7601
-3.4265959 -45.68539 119.9078
-1.576105 -44.643639 120.1474
-12.90224 -48.025211 119.3101
-10.9008 -47.858299 119.3322
-9.2804375 -47.564098 119.5556
-7.5525708 -47.201241 119.7967
-22.64897 -19.64196 122.0046
-21.620781 -18.81926 122.3892
-20.06654 -17.81702 122.4345
-18.28693 -17.07259 122.5364
-16.31885 -16.723 122.6475
-14.27012 -16.675949 122.7159
-12.36927 -16.953819 122.6659
-10.70575 -17.41452 122.9442
-24.65193 -21.737961 121.7444
-23.69701 -20.68569 122.0885
-9.7942715 -17.657339 122.8504
-8.4008684 -17.988411 122.764
-6.6030178 -18.64353 122.8305
-5.3942142 -19.194929 122.873
-26.29891 -23.95248 121.5108
-25.41259 -22.712629 121.862
-4.1218209 -19.9711 122.717
-3.2660551 -20.75425 122.9569
-27.54048 -26.355881 121.3269
-26.93136 -25.06749 121.6408
-2.042459 -21.87377 122.7402
-28.03179 -27.85132 121.0156
-16.371401 -27.45645 120.8875
-1.2384861 -22.607309 122.5317
-0.14798079 -23.744181 122.7283
-28.473249 -30.56955 120.9732
-28.29179 -29.03171 121.2119
-12.37826 -27.577271 121.5408
-11.7973 -27.496281 121.8071
-10.69104 -27.355289 121.9816
-9.4728575 -27.51016 122.2111
0.79123372 -24.713949 122.4883
1.624578 -25.88273 122.6863
-28.43539 -32.359131 120.774
-17.28488 -30.469219 121.3571
-15.95391 -29.07225 121.5348
-15.02902 -28.677191 121.7879
-13.40429 -28.037979 121.8372
-8.270689 -27.92979 121.8709
-6.8789058 -28.647869 122.0649
2.532511 -27.491501 122.4437
-28.206751 -34.255241 120.6165
-18.142599 -32.470871 120.7497
-17.7549 -31.823799 121.0913
-5.9381309 -29.28989 121.8369
-4.5754352 -30.43812 121.712
-5.0026522 -29.96439 122.1179
-4.210566 -30.90049 122.1406
3.414825 -29.5021 122.1132
-27.83662 -36.17646 120.4688
-18.28134 -33.59156 121.0337
-18.51334 -35.323269 121.0455
-3.716356 -32.058071 121.6904
3.90082 -31.010441 121.7605
3.9786839 -31.6276 121.9658
-27.317089 -38.04166 120.2962
-18.846201 -36.21674 120.2658
-18.262819 -36.932522 120.7287
-3.4794281 -33.646332 121.3764
4.2186012 -33.09317 121.7875
4.1145639 -32.45713 122.0972
4.2116098 -33.081829 122.0206
-26.630569 -39.762909 120.1257
-26.323429 -40.27462 119.7745
-17.275681 -38.335602 120.8363
-5.7660298 -36.885719 121.1321
-4.7670941 -35.90947 121.5859
-3.8748479 -34.756248 121.4849
4.2487588 -33.843632 121.9614
4.2768102 -35.433338 121.8724
-26.15752 -40.792961 120.078
-25.565981 -41.932251 120.2003
-16.27282 -38.944611 120.6844
-14.81223 -39.42205 120.5573
-13.30437 -39.781929 120.8735
-7.904994 -38.85025 120.7632
-6.815114 -38.010151 121.2564
4.1627188 -36.997292 121.6004
-24.6043 -43.24725 119.9466
-12.14065 -39.82822 120.8077
-10.56265 -39.71492 120.8131
-9.1453876 -39.43483 120.8089
3.7702751 -38.748032 121.2846
-23.66136 -44.35762 119.7353
-22.615879 -45.313 119.9705
2.4531879 -41.29351 121.0427
3.2313149 -40.04467 121.4132
-21.422371 -46.07325 119.7488
-20.023781 -46.680161 119.9517
-0.49421799 -43.938141 120.6776
0.2838501 -43.374939 120.8727
1.531229 -42.280109 121.1704
-18.902519 -47.04155 119.6752
-17.207291 -47.491619 119.8243
-15.18495 -47.86871 119.9784
-13.95245 -47.941769 119.6684
-13.91519 -47.92577 119.9131
-13.1223 -47.969879 119.7976
-6.122571 -46.731239 120.1848
-5.0136838 -46.30629 120.3519
-3.41348 -45.699631 120.5479
-1.9203399 -44.841869 120.8053
-11.5093 -47.954342 119.9416
-9.3967609 -47.675869 120.1804
-7.6557169 -47.264641 120.4083
-22.70323 -19.69972 122.6007
-21.63838 -18.870569 122.9894
-20.08357 -17.887091 123.0296
-18.310471 -17.14621 123.1294
-16.367531 -16.771099 123.2452
-14.32156 -16.727461 123.3334
-12.06734 -17.087379 123.3492
-10.57848 -17.48554 123.3351
-24.668579 -21.78994 122.342
-23.722179 -20.71282 122.6903
-10.0176 -17.638321 123.2845
-8.4553413 -18.05323 123.4016
-6.4361162 -18.84342 123.5743
-5.7256298 -19.113199 123.2579
-26.28879 -24.00964 122.1087
-25.42721 -22.775351 122.4591
-5.4646311 -19.314631 123.566
-4.2741251 -19.97135 123.3092
-3.313472 -20.839769 123.5551
-27.566059 -26.41725 121.9233
-26.94013 -25.14397 122.2364
-2.1038661 -21.97418 123.3326
-28.05357 -27.906731 121.6129
-1.26719 -22.737829 123.1219
-0.2101928 -23.846041 123.3168
-28.50506 -30.62184 121.5692
-28.317841 -29.068911 121.8104
-12.00038 -27.66534 122.309
-10.68175 -27.459459 122.5462
-9.4748907 -27.55216 122.8011
0.74034172 -24.798059 123.0729
1.562354 -25.96236 123.2685
-28.45788 -32.41473 121.3683
-18.24251 -31.524799 121.8363
-17.724831 -30.815651 121.6972
-17.795 -30.5632 122.1059
-16.520439 -29.464161 122.0379
-14.79835 -28.56184 122.2666
-13.26416 -28.072229 122.5054
-8.3309345 -27.90889 122.4781
-6.9814591 -28.608959 122.6074
2.448225 -27.51535 123.0501
-28.252081 -34.32143 121.2094
-18.47386 -32.49593 121.4425
-18.365971 -32.492741 121.3859
-18.378901 -32.226181 121.4684
-18.00845 -32.359421 121.3554
-5.9032311 -29.387831 122.5042
-4.6749721 -30.32118 122.3901
-4.1883602 -30.969851 122.4379
3.2731659 -29.369511 122.8392
-27.879601 -36.235481 121.0711
-18.477119 -32.9259 121.514
-18.427971 -34.556751 121.5601
-3.778003 -32.054981 122.4667
3.860894 -31.60821 122.6003
-27.421579 -38.05365 120.9174
-18.167231 -36.719669 121.4171
-3.5496449 -33.620049 121.9693
4.17029 -33.191151 122.2287
4.1190772 -33.507 122.6567
-26.723869 -39.683929 120.7443
-17.29841 -38.274651 121.2887
-5.7993698 -36.989819 121.7513
-4.9586611 -36.147511 122.1246
-4.0255609 -35.009918 122.0795
4.2154622 -35.062019 122.3958
-26.2279 -40.72617 120.586
-25.569651 -42.082859 120.7949
-16.43182 -39.01997 121.1443
-14.79103 -39.665951 121.2177
-13.29616 -39.878391 121.354
-7.9817219 -38.885368 121.4148
-6.8610182 -38.03553 121.8175
4.0773072 -37.038799 122.1758
-24.593081 -43.376438 120.5579
-12.31985 -39.88076 121.3532
-10.68955 -39.755051 121.411
-9.099597 -39.431919 121.449
3.6715741 -38.791309 121.8791
-23.68284 -44.392601 120.3395
-22.61706 -45.344872 120.5703
2.42291 -41.298241 121.6698
3.1600151 -40.029221 122.0228
-21.435499 -46.098721 120.3468
-20.04537 -46.716209 120.5501
-0.62301868 -44.001362 121.2334
0.30353749 -43.32711 121.4764
1.532021 -42.25267 121.7992
-18.897961 -47.07806 120.279
-17.24049 -47.498878 120.441
-15.80637 -47.799301 120.6218
-13.49677 -47.933769 120.1408
-14.38785 -47.963322 120.6327
-6.1869478 -46.779621 120.7789
-5.054142 -46.356529 120.9597
-3.525387 -45.759579 121.171
-2.0373199 -44.93692 121.414
-12.82789 -48.01553 120.4783
-11.18439 -47.95015 120.5994
-9.3915968 -47.682838 120.7984
-7.7093639 -47.263149 121.0141
-22.704741 -19.754629 123.2052
-21.6369 -18.939751 123.5942
-20.082701 -17.983231 123.6277
-18.31975 -17.19404 123.7278
-16.392521 -16.81341 123.8407
-14.44669 -16.741421 123.9239
-12.48718 -17.05978 123.9651
-10.77111 -17.47452 123.9632
-10.20557 -17.609221 123.5746
-9.5255079 -17.8412 124.1073
-24.69441 -21.849291 122.9411
-23.73782 -20.76141 123.2951
-7.8522248 -18.276011 124.02
-6.4916492 -18.866159 124.1705
-26.306219 -24.075041 122.7057
-25.44227 -22.84572 123.0571
-5.683692 -19.26045 124.0492
-4.2569799 -20.15015 123.9143
-3.429399 -20.91659 124.1595
-27.573021 -26.477791 122.5204
-26.948959 -25.22303 122.8323
-2.1526229 -22.068569 123.9269
-28.06222 -27.96114 122.2107
-1.3132941 -22.85 123.7115
-0.31392261 -23.950371 123.9037
-28.53606 -30.67268 122.1663
-28.33815 -29.14023 122.4062
-11.96615 -27.68384 122.8919
-10.62722 -27.45192 123.0411
-9.6019068 -27.58346 123.3522
0.67584258 -24.94758 123.6606
1.4484659 -26.07486 123.8451
-28.488541 -32.467941 121.9637
-18.327841 -31.44278 122.4387
-17.551161 -30.1726 122.5933
-16.26519 -29.221581 122.7094
-14.67255 -28.42732 122.8325
-13.39709 -28.029619 122.913
-8.2038593 -28.037081 123.0664
-6.5103502 -28.928989 123.0127
-7.2095642 -28.44632 123.3661
-6.054863 -29.31591 123.4681
2.323976 -27.58268 123.6344
-28.28463 -34.38509 121.8027
-18.512079 -32.42688 121.6218
-18.613871 -33.168331 122.0653
-5.0056682 -30.402081 123.1068
-4.4982119 -30.730169 122.689
3.2041709 -29.327721 123.4695
-27.9335 -36.316959 121.6642
-18.574671 -34.86964 122.0749
-4.0876451 -31.52706 122.9825
-3.64906 -32.768749 123.0975
3.7155061 -31.31118 123.3027
-27.471001 -38.138691 121.5184
-18.2006 -36.5518 122.1162
-3.606658 -33.975651 122.6421
4.0366821 -33.308632 123.1616
-26.823999 -39.763889 121.3481
-17.27615 -38.218311 121.9175
-5.8866162 -37.096241 122.2977
-5.0097079 -36.206779 122.7273
-4.1199198 -35.17511 122.6921
4.1544638 -35.137951 122.9932
-26.26037 -40.933392 121.1654
-25.59877 -42.19212 121.3935
-15.99232 -39.278381 121.7752
-14.51916 -39.840279 121.6944
-13.88949 -39.938301 121.5666
-7.961298 -38.881371 121.995
-6.856245 -38.034641 122.4236
3.991025 -36.978001 122.7754
-24.62809 -43.472961 121.1594
-13.80585 -39.973831 121.7931
-12.83341 -39.943439 121.7953
-11.12535 -39.799011 121.9077
-9.4757166 -39.561111 122.1558
3.579787 -38.808189 122.4947
-23.69482 -44.472431 120.9404
-22.64229 -45.385578 121.1686
2.3576739 -41.30941 122.2746
3.067611 -40.03875 122.6266
-21.446871 -46.13546 120.9445
-20.02751 -46.756531 121.1494
-0.66231269 -44.04874 121.832
0.27885559 -43.35355 122.0814
1.486881 -42.25832 122.4005
-18.92415 -47.097649 120.8817
-17.33724 -47.540562 121.0361
-15.72299 -47.874451 121.1571
-14.3124 -48.014881 121.2873
-6.2074108 -46.817558 121.3797
-5.1139808 -46.414429 121.5624
-3.591686 -45.819069 121.7755
-2.0867479 -44.996861 122.0156
-12.89094 -48.011341 121.0158
-11.16006 -47.96011 121.1978
-9.4178791 -47.71397 121.3969
-7.7539701 -47.30751 121.6095
-22.68041 -19.825411 123.8185
-21.6089 -19.0257 124.1933
-20.078501 -18.039619 124.2309
-18.31366 -17.24398 124.3306
-16.37397 -16.87175 124.4409
-14.4004 -16.80682 124.5164
-12.71967 -17.04217 124.4837
-10.75357 -17.54051 124.5872
-9.5744581 -17.88954 124.7041
-24.6759 -21.914841 123.5416
